# .PCD v.7 - Point Cloud Data file format
VERSION .7
FIELDS x y z
SIZE 4 4 4
TYPE F F F
COUNT 1 1 1
WIDTH 1679
HEIGHT 1
POINTS 1679
DATA ascii
0.217971 -1.774376 1.365716
0.207149 -1.735927 1.379292
0.196222 -1.697109 1.392172
0.185196 -1.657939 1.404352
0.174078 -1.618438 1.415825
0.162871 -1.578625 1.426585
0.151583 -1.538521 1.436626
0.140218 -1.498146 1.445944
0.128783 -1.457520 1.454534
0.117282 -1.416664 1.462392
0.105723 -1.375598 1.469513
0.094111 -1.334342 1.475894
0.082451 -1.292919 1.481533
0.070749 -1.251348 1.486425
0.059012 -1.209650 1.490568
0.047245 -1.167847 1.493961
0.035455 -1.125959 1.496602
0.023647 -1.084008 1.498490
0.011826 -1.042015 1.499622
0.000000 1.000000 1.500000
0.000000 1.000000 -1.500000
0.013228 -1.041265 -1.499622
0.026450 -1.082509 -1.498490
0.039658 -1.123711 -1.496602
0.052846 -1.164852 -1.493961
0.066007 -1.205909 -1.490568
0.079136 -1.246862 -1.486425
0.092224 -1.287692 -1.481533
0.105266 -1.328376 -1.475894
0.118255 -1.368895 -1.469513
0.131184 -1.409228 -1.462392
0.144048 -1.449356 -1.454534
0.156839 -1.489257 -1.445944
0.169551 -1.528911 -1.436626
0.182177 -1.568299 -1.426585
0.194712 -1.607402 -1.415825
0.207149 -1.646198 -1.404352
0.219481 -1.684669 -1.392172
0.231703 -1.722795 -1.379292
0.243808 -1.760557 -1.365716
0.255791 -1.797936 -1.351453
0.267644 -1.834914 -1.336510
0.279363 -1.871471 -1.320893
0.290942 -1.907589 -1.304612
0.302373 -1.943250 -1.287673
0.313653 -1.978437 -1.270086
0.324774 -2.013130 -1.251860
0.335732 -2.047314 -1.233003
0.346521 -2.080970 -1.213525
0.357136 -2.114082 -1.193437
0.367571 -2.146632 -1.172747
0.377820 -2.178606 -1.151467
0.387880 -2.209986 -1.129607
0.397744 -2.240757 -1.107178
0.407407 -2.270903 -1.084192
0.416866 -2.300409 -1.060660
0.426115 -2.329260 -1.036594
0.435149 -2.357442 -1.012006
0.443964 -2.384940 -0.986908
0.452555 -2.411741 -0.961313
0.460919 -2.437832 -0.935235
0.469051 -2.463198 -0.908685
0.476946 -2.487827 -0.881678
0.484601 -2.511707 -0.854227
0.492012 -2.534827 -0.826345
0.499176 -2.557173 -0.798048
0.506088 -2.578735 -0.769349
0.512745 -2.599502 -0.740262
0.519144 -2.619464 -0.710803
0.525282 -2.638610 -0.680986
0.531155 -2.656932 -0.650826
0.536761 -2.674419 -0.620338
0.542096 -2.691063 -0.589538
0.547159 -2.706855 -0.558440
0.551946 -2.721788 -0.527062
0.556455 -2.735854 -0.495419
0.560684 -2.749046 -0.463525
0.564630 -2.761357 -0.431399
0.568292 -2.772781 -0.399055
0.571668 -2.783313 -0.366511
0.574757 -2.792947 -0.333781
0.577555 -2.801677 -0.300884
0.580063 -2.809501 -0.267835
0.582279 -2.816414 -0.234652
0.584202 -2.822412 -0.201350
0.585831 -2.827492 -0.167947
0.587164 -2.831652 -0.134459
0.588202 -2.834890 -0.100904
0.588944 -2.837204 -0.067297
0.589389 -2.838593 -0.033657
0.589538 -2.839056 0.000000
0.589389 -2.838593 0.033657
0.588944 -2.837204 0.067297
0.588202 -2.834890 0.100904
0.587164 -2.831652 0.134459
0.585831 -2.827492 0.167947
0.584202 -2.822412 0.201350
0.582279 -2.816414 0.234652
0.580063 -2.809501 0.267835
0.577555 -2.801677 0.300884
0.574757 -2.792947 0.333781
0.571668 -2.783313 0.366511
0.568292 -2.772781 0.399055
0.564630 -2.761357 0.431399
0.560684 -2.749046 0.463525
0.556455 -2.735854 0.495419
0.551946 -2.721788 0.527062
0.547159 -2.706855 0.558440
0.542096 -2.691063 0.589538
0.536761 -2.674419 0.620338
0.531155 -2.656932 0.650826
0.525282 -2.638610 0.680986
0.519144 -2.619464 0.710803
0.512745 -2.599502 0.740262
0.506088 -2.578735 0.769349
0.499176 -2.557173 0.798048
0.492012 -2.534827 0.826345
0.484601 -2.511707 0.854227
0.476946 -2.487827 0.881678
0.469051 -2.463198 0.908685
0.460919 -2.437832 0.935235
0.452555 -2.411741 0.961313
0.443964 -2.384940 0.986908
0.435149 -2.357442 1.012006
0.426115 -2.329260 1.036594
0.416866 -2.300409 1.060660
0.407407 -2.270903 1.084192
0.397744 -2.240757 1.107178
0.387880 -2.209986 1.129607
0.377820 -2.178606 1.151467
0.367571 -2.146632 1.172747
0.357136 -2.114082 1.193437
0.346521 -2.080970 1.213525
0.335732 -2.047314 1.233003
0.324774 -2.013130 1.251860
0.313653 -1.978437 1.270086
0.302373 -1.943250 1.287673
0.290942 -1.907589 1.304612
0.279363 -1.871471 1.320893
0.267644 -1.834914 1.336510
0.255791 -1.797936 1.351453
0.243808 -1.760557 1.365716
0.231703 -1.722795 1.379292
0.219481 -1.684669 1.392172
0.207149 -1.646198 1.404352
0.194712 -1.607402 1.415825
0.182177 -1.568299 1.426585
0.169551 -1.528911 1.436626
0.156839 -1.489257 1.445944
0.144048 -1.449356 1.454534
0.131184 -1.409228 1.462392
0.118255 -1.368895 1.469513
0.105266 -1.328376 1.475894
0.092224 -1.287692 1.481533
0.079136 -1.246862 1.486425
0.066007 -1.205909 1.490568
0.052846 -1.164852 1.493961
0.039658 -1.123711 1.496602
0.026450 -1.082509 1.498490
0.013228 -1.041265 1.499622
0.000000 1.000000 1.500000
0.000000 1.000000 -1.500000
0.014603 -1.040432 -1.499622
0.029199 -1.080844 -1.498490
0.043780 -1.121215 -1.496602
0.058340 -1.161524 -1.493961
0.072869 -1.201753 -1.490568
0.087362 -1.241880 -1.486425
0.101812 -1.281885 -1.481533
0.116209 -1.321748 -1.475894
0.130549 -1.361450 -1.469513
0.144822 -1.400969 -1.462392
0.159023 -1.440286 -1.454534
0.173144 -1.479382 -1.445944
0.187177 -1.518236 -1.436626
0.201116 -1.556829 -1.426585
0.214954 -1.595142 -1.415825
0.228684 -1.633156 -1.404352
0.242298 -1.670850 -1.392172
0.255791 -1.708207 -1.379292
0.269154 -1.745207 -1.365716
0.282383 -1.781831 -1.351453
0.295469 -1.818063 -1.336510
0.308406 -1.853882 -1.320893
0.321188 -1.889271 -1.304612
0.333808 -1.924213 -1.287673
0.346260 -1.958689 -1.270086
0.358538 -1.992682 -1.251860
0.370635 -2.026176 -1.233003
0.382546 -2.059152 -1.213525
0.394264 -2.091596 -1.193437
0.405783 -2.123490 -1.172747
0.417098 -2.154818 -1.151467
0.428203 -2.185565 -1.129607
0.439093 -2.215714 -1.107178
0.449761 -2.245252 -1.084192
0.460203 -2.274162 -1.060660
0.470413 -2.302431 -1.036594
0.480387 -2.330044 -1.012006
0.490118 -2.356988 -0.986908
0.499603 -2.383248 -0.961313
0.508836 -2.408812 -0.935235
0.517813 -2.433666 -0.908685
0.526529 -2.457798 -0.881678
0.534980 -2.481197 -0.854227
0.543162 -2.503849 -0.826345
0.551070 -2.525744 -0.798048
0.558700 -2.546871 -0.769349
0.566050 -2.567219 -0.740262
0.573114 -2.586778 -0.710803
0.579890 -2.605538 -0.680986
0.586374 -2.623490 -0.650826
0.592562 -2.640624 -0.620338
0.598452 -2.656932 -0.589538
0.604041 -2.672405 -0.558440
0.609326 -2.687037 -0.527062
0.614303 -2.700819 -0.495419
0.618972 -2.713745 -0.463525
0.623329 -2.725807 -0.431399
0.627372 -2.737001 -0.399055
0.631099 -2.747320 -0.366511
0.634508 -2.756759 -0.333781
0.637598 -2.765314 -0.300884
0.640367 -2.772980 -0.267835
0.642813 -2.779753 -0.234652
0.644935 -2.785630 -0.201350
0.646733 -2.790608 -0.167947
0.648206 -2.794684 -0.134459
0.649351 -2.797856 -0.100904
0.650170 -2.800123 -0.067297
0.650662 -2.801484 -0.033657
0.650826 -2.801938 0.000000
0.650662 -2.801484 0.033657
0.650170 -2.800123 0.067297
0.649351 -2.797856 0.100904
0.648206 -2.794684 0.134459
0.646733 -2.790608 0.167947
0.644935 -2.785630 0.201350
0.642813 -2.779753 0.234652
0.640367 -2.772980 0.267835
0.637598 -2.765314 0.300884
0.634508 -2.756759 0.333781
0.631099 -2.747320 0.366511
0.627372 -2.737001 0.399055
0.623329 -2.725807 0.431399
0.618972 -2.713745 0.463525
0.614303 -2.700819 0.495419
0.609326 -2.687037 0.527062
0.604041 -2.672405 0.558440
0.598452 -2.656932 0.589538
0.592562 -2.640624 0.620338
0.586374 -2.623490 0.650826
0.579890 -2.605538 0.680986
0.573114 -2.586778 0.710803
0.566050 -2.567219 0.740262
0.558700 -2.546871 0.769349
0.551070 -2.525744 0.798048
0.543162 -2.503849 0.826345
0.534980 -2.481197 0.854227
0.526529 -2.457798 0.881678
0.517813 -2.433666 0.908685
0.508836 -2.408812 0.935235
0.499603 -2.383248 0.961313
0.490118 -2.356988 0.986908
0.480387 -2.330044 1.012006
0.470413 -2.302431 1.036594
0.460203 -2.274162 1.060660
0.449761 -2.245252 1.084192
0.439093 -2.215714 1.107178
0.428203 -2.185565 1.129607
0.417098 -2.154818 1.151467
0.405783 -2.123490 1.172747
0.394264 -2.091596 1.193437
0.382546 -2.059152 1.213525
0.370635 -2.026176 1.233003
0.358538 -1.992682 1.251860
0.346260 -1.958689 1.270086
0.333808 -1.924213 1.287673
0.321188 -1.889271 1.304612
0.308406 -1.853882 1.320893
0.295469 -1.818063 1.336510
0.282383 -1.781831 1.351453
0.269154 -1.745207 1.365716
0.255791 -1.708207 1.379292
0.242298 -1.670850 1.392172
0.228684 -1.633156 1.404352
0.214954 -1.595142 1.415825
0.201116 -1.556829 1.426585
0.187177 -1.518236 1.436626
0.173144 -1.479382 1.445944
0.159023 -1.440286 1.454534
0.144822 -1.400969 1.462392
0.130549 -1.361450 1.469513
0.116209 -1.321748 1.475894
0.101812 -1.281885 1.481533
0.087362 -1.241880 1.486425
0.072869 -1.201753 1.490568
0.058340 -1.161524 1.493961
0.043780 -1.121215 1.496602
0.029199 -1.080844 1.498490
0.014603 -1.040432 1.499622
0.000000 1.000000 1.500000
0.000000 1.000000 -1.500000
0.015949 -1.039518 -1.499622
0.031890 -1.079016 -1.498490
0.047815 -1.118474 -1.496602
0.063716 -1.157872 -1.493961
0.079585 -1.197191 -1.490568
0.095413 -1.236410 -1.486425
0.111194 -1.275511 -1.481533
0.126919 -1.314473 -1.475894
0.142580 -1.353276 -1.469513
0.158169 -1.391902 -1.462392
0.173678 -1.430330 -1.454534
0.189100 -1.468542 -1.445944
0.204426 -1.506517 -1.436626
0.219650 -1.544238 -1.426585
0.234763 -1.581685 -1.415825
0.249758 -1.618838 -1.404352
0.264627 -1.655680 -1.392172
0.279363 -1.692192 -1.379292
0.293959 -1.728356 -1.365716
0.308406 -1.764152 -1.351453
0.322698 -1.799564 -1.336510
0.336827 -1.834573 -1.320893
0.350787 -1.869162 -1.304612
0.364570 -1.903314 -1.287673
0.378170 -1.937010 -1.270086
0.391579 -1.970235 -1.251860
0.404791 -2.002971 -1.233003
0.417800 -2.035202 -1.213525
0.430597 -2.066912 -1.193437
0.443178 -2.098085 -1.172747
0.455536 -2.128704 -1.151467
0.467665 -2.158756 -1.129607
0.479558 -2.188224 -1.107178
0.491209 -2.217093 -1.084192
0.502614 -2.245350 -1.060660
0.513765 -2.272980 -1.036594
0.524657 -2.299969 -1.012006
0.535285 -2.326303 -0.986908
0.545644 -2.351969 -0.961313
0.555728 -2.376955 -0.935235
0.565532 -2.401247 -0.908685
0.575052 -2.424834 -0.881678
0.584282 -2.447703 -0.854227
0.593217 -2.469843 -0.826345
0.601854 -2.491243 -0.798048
0.610188 -2.511892 -0.769349
0.618215 -2.531780 -0.740262
0.625930 -2.550897 -0.710803
0.633330 -2.569233 -0.680986
0.640411 -2.586778 -0.650826
0.647170 -2.603525 -0.620338
0.653603 -2.619464 -0.589538
0.659707 -2.634588 -0.558440
0.665479 -2.648888 -0.527062
0.670915 -2.662359 -0.495419
0.676014 -2.674992 -0.463525
0.680772 -2.686782 -0.431399
0.685188 -2.697723 -0.399055
0.689258 -2.707809 -0.366511
0.692982 -2.717034 -0.333781
0.696356 -2.725396 -0.300884
0.699380 -2.732888 -0.267835
0.702052 -2.739508 -0.234652
0.704370 -2.745252 -0.201350
0.706334 -2.750117 -0.167947
0.707942 -2.754101 -0.134459
0.709193 -2.757202 -0.100904
0.710087 -2.759418 -0.067297
0.710624 -2.760748 -0.033657
0.710803 -2.761191 0.000000
0.710624 -2.760748 0.033657
0.710087 -2.759418 0.067297
0.709193 -2.757202 0.100904
0.707942 -2.754101 0.134459
0.706334 -2.750117 0.167947
0.704370 -2.745252 0.201350
0.702052 -2.739508 0.234652
0.699380 -2.732888 0.267835
0.696356 -2.725396 0.300884
0.692982 -2.717034 0.333781
0.689258 -2.707809 0.366511
0.685188 -2.697723 0.399055
0.680772 -2.686782 0.431399
0.676014 -2.674992 0.463525
0.670915 -2.662359 0.495419
0.665479 -2.648888 0.527062
0.659707 -2.634588 0.558440
0.653603 -2.619464 0.589538
0.647170 -2.603525 0.620338
0.640411 -2.586778 0.650826
0.633330 -2.569233 0.680986
0.625930 -2.550897 0.710803
0.618215 -2.531780 0.740262
0.610188 -2.511892 0.769349
0.601854 -2.491243 0.798048
0.593217 -2.469843 0.826345
0.584282 -2.447703 0.854227
0.575052 -2.424834 0.881678
0.565532 -2.401247 0.908685
0.555728 -2.376955 0.935235
0.545644 -2.351969 0.961313
0.535285 -2.326303 0.986908
0.524657 -2.299969 1.012006
0.513765 -2.272980 1.036594
0.502614 -2.245350 1.060660
0.491209 -2.217093 1.084192
0.479558 -2.188224 1.107178
0.467665 -2.158756 1.129607
0.455536 -2.128704 1.151467
0.443178 -2.098085 1.172747
0.430597 -2.066912 1.193437
0.417800 -2.035202 1.213525
0.404791 -2.002971 1.233003
0.391579 -1.970235 1.251860
0.378170 -1.937010 1.270086
0.364570 -1.903314 1.287673
0.350787 -1.869162 1.304612
0.336827 -1.834573 1.320893
0.322698 -1.799564 1.336510
0.308406 -1.764152 1.351453
0.293959 -1.728356 1.365716
0.279363 -1.692192 1.379292
0.264627 -1.655680 1.392172
0.249758 -1.618838 1.404352
0.234763 -1.581685 1.415825
0.219650 -1.544238 1.426585
0.204426 -1.506517 1.436626
0.189100 -1.468542 1.445944
0.173678 -1.430330 1.454534
0.158169 -1.391902 1.462392
0.142580 -1.353276 1.469513
0.126919 -1.314473 1.475894
0.111194 -1.275511 1.481533
0.095413 -1.236410 1.486425
0.079585 -1.197191 1.490568
0.063716 -1.157872 1.493961
0.047815 -1.118474 1.496602
0.031890 -1.079016 1.498490
0.015949 -1.039518 1.499622
0.000000 1.000000 1.500000
0.000000 1.000000 -1.500000
0.017263 -1.038524 -1.499622
0.034517 -1.077028 -1.498490
0.051753 -1.115494 -1.496602
0.068964 -1.153902 -1.493961
0.086140 -1.192232 -1.490568
0.103272 -1.230465 -1.486425
0.120353 -1.268582 -1.481533
0.137373 -1.306564 -1.475894
0.154323 -1.344391 -1.469513
0.171196 -1.382046 -1.462392
0.187983 -1.419507 -1.454534
0.204675 -1.456758 -1.445944
0.221264 -1.493779 -1.436626
0.237742 -1.530551 -1.426585
0.254100 -1.567055 -1.415825
0.270330 -1.603275 -1.404352
0.286424 -1.639190 -1.392172
0.302373 -1.674784 -1.379292
0.318171 -1.710038 -1.365716
0.333808 -1.744934 -1.351453
0.349277 -1.779455 -1.336510
0.364570 -1.813584 -1.320893
0.379680 -1.847303 -1.304612
0.394599 -1.880596 -1.287673
0.409318 -1.913445 -1.270086
0.423832 -1.945834 -1.251860
0.438132 -1.977747 -1.233003
0.452212 -2.009167 -1.213525
0.466064 -2.040079 -1.193437
0.479681 -2.070468 -1.172747
0.493057 -2.100318 -1.151467
0.506184 -2.129613 -1.129607
0.519057 -2.158340 -1.107178
0.531668 -2.186484 -1.084192
0.544012 -2.214030 -1.060660
0.556081 -2.240965 -1.036594
0.567871 -2.267275 -1.012006
0.579375 -2.292947 -0.986908
0.590587 -2.317967 -0.961313
0.601501 -2.342325 -0.935235
0.612113 -2.366006 -0.908685
0.622416 -2.388999 -0.881678
0.632406 -2.411293 -0.854227
0.642078 -2.432877 -0.826345
0.651426 -2.453739 -0.798048
0.660447 -2.473869 -0.769349
0.669134 -2.493256 -0.740262
0.677485 -2.511892 -0.710803
0.685495 -2.529767 -0.680986
0.693159 -2.546871 -0.650826
0.700475 -2.563197 -0.620338
0.707438 -2.578735 -0.589538
0.714044 -2.593478 -0.558440
0.720291 -2.607419 -0.527062
0.726176 -2.620551 -0.495419
0.731694 -2.632867 -0.463525
0.736845 -2.644360 -0.431399
0.741624 -2.655026 -0.399055
0.746030 -2.664858 -0.366511
0.750060 -2.673851 -0.333781
0.753712 -2.682002 -0.300884
0.756985 -2.689306 -0.267835
0.759877 -2.695760 -0.234652
0.762386 -2.701359 -0.201350
0.764511 -2.706102 -0.167947
0.766252 -2.709986 -0.134459
0.767606 -2.713009 -0.100904
0.768574 -2.715169 -0.067297
0.769155 -2.716465 -0.033657
0.769349 -2.716898 0.000000
0.769155 -2.716465 0.033657
0.768574 -2.715169 0.067297
0.767606 -2.713009 0.100904
0.766252 -2.709986 0.134459
0.764511 -2.706102 0.167947
0.762386 -2.701359 0.201350
0.759877 -2.695760 0.234652
0.756985 -2.689306 0.267835
0.753712 -2.682002 0.300884
0.750060 -2.673851 0.333781
0.746030 -2.664858 0.366511
0.741624 -2.655026 0.399055
0.736845 -2.644360 0.431399
0.731694 -2.632867 0.463525
0.726176 -2.620551 0.495419
0.720291 -2.607419 0.527062
0.714044 -2.593478 0.558440
0.707438 -2.578735 0.589538
0.700475 -2.563197 0.620338
0.693159 -2.546871 0.650826
0.685495 -2.529767 0.680986
0.677485 -2.511892 0.710803
0.669134 -2.493256 0.740262
0.660447 -2.473869 0.769349
0.651426 -2.453739 0.798048
0.642078 -2.432877 0.826345
0.632406 -2.411293 0.854227
0.622416 -2.388999 0.881678
0.612113 -2.366006 0.908685
0.601501 -2.342325 0.935235
0.590587 -2.317967 0.961313
0.579375 -2.292947 0.986908
0.567871 -2.267275 1.012006
0.556081 -2.240965 1.036594
0.544012 -2.214030 1.060660
0.531668 -2.186484 1.084192
0.519057 -2.158340 1.107178
0.506184 -2.129613 1.129607
0.493057 -2.100318 1.151467
0.479681 -2.070468 1.172747
0.466064 -2.040079 1.193437
0.452212 -2.009167 1.213525
0.438132 -1.977747 1.233003
0.423832 -1.945834 1.251860
0.409318 -1.913445 1.270086
0.394599 -1.880596 1.287673
0.379680 -1.847303 1.304612
0.364570 -1.813584 1.320893
0.349277 -1.779455 1.336510
0.333808 -1.744934 1.351453
0.318171 -1.710038 1.365716
0.302373 -1.674784 1.379292
0.286424 -1.639190 1.392172
0.270330 -1.603275 1.404352
0.254100 -1.567055 1.415825
0.237742 -1.530551 1.426585
0.221264 -1.493779 1.436626
0.204675 -1.456758 1.445944
0.187983 -1.419507 1.454534
0.171196 -1.382046 1.462392
0.154323 -1.344391 1.469513
0.137373 -1.306564 1.475894
0.120353 -1.268582 1.481533
0.103272 -1.230465 1.486425
0.086140 -1.192232 1.490568
0.068964 -1.153902 1.493961
0.051753 -1.115494 1.496602
0.034517 -1.077028 1.498490
0.017263 -1.038524 1.499622
0.000000 1.000000 1.500000
0.000000 1.000000 -1.500000
0.018542 -1.037452 -1.499622
0.037074 -1.074886 -1.498490
0.055587 -1.112282 -1.496602
0.074073 -1.149621 -1.493961
0.092521 -1.186885 -1.490568
0.110923 -1.224055 -1.486425
0.129269 -1.261112 -1.481533
0.147550 -1.298038 -1.475894
0.165756 -1.334813 -1.469513
0.183879 -1.371420 -1.462392
0.201910 -1.407840 -1.454534
0.219838 -1.444054 -1.445944
0.237656 -1.480045 -1.436626
0.255355 -1.515795 -1.426585
0.272925 -1.551284 -1.415825
0.290357 -1.586496 -1.404352
0.307643 -1.621413 -1.392172
0.324774 -1.656016 -1.379292
0.341742 -1.690290 -1.365716
0.358538 -1.724216 -1.351453
0.375153 -1.757777 -1.336510
0.391579 -1.790956 -1.320893
0.407808 -1.823738 -1.304612
0.423832 -1.856104 -1.287673
0.439642 -1.888039 -1.270086
0.455231 -1.919528 -1.251860
0.470591 -1.950553 -1.233003
0.485714 -1.981100 -1.213525
0.500592 -2.011152 -1.193437
0.515218 -2.040696 -1.172747
0.529585 -2.069715 -1.151467
0.543685 -2.098196 -1.129607
0.557511 -2.126124 -1.107178
0.571056 -2.153485 -1.084192
0.584314 -2.180265 -1.060660
0.597278 -2.206451 -1.036594
0.609941 -2.232029 -1.012006
0.622297 -2.256987 -0.986908
0.634340 -2.281312 -0.961313
0.646063 -2.304991 -0.935235
0.657461 -2.328014 -0.908685
0.668528 -2.350368 -0.881678
0.679258 -2.372042 -0.854227
0.689646 -2.393025 -0.826345
0.699687 -2.413307 -0.798048
0.709375 -2.432877 -0.769349
0.718707 -2.451725 -0.740262
0.727676 -2.469843 -0.710803
0.736279 -2.487220 -0.680986
0.744512 -2.503849 -0.650826
0.752369 -2.519720 -0.620338
0.759848 -2.534827 -0.589538
0.766944 -2.549160 -0.558440
0.773653 -2.562713 -0.527062
0.779974 -2.575480 -0.495419
0.785901 -2.587453 -0.463525
0.791433 -2.598626 -0.431399
0.796566 -2.608995 -0.399055
0.801299 -2.618554 -0.366511
0.805627 -2.627298 -0.333781
0.809550 -2.635222 -0.300884
0.813066 -2.642323 -0.267835
0.816172 -2.648597 -0.234652
0.818867 -2.654040 -0.201350
0.821150 -2.658651 -0.167947
0.823019 -2.662427 -0.134459
0.824474 -2.665366 -0.100904
0.825513 -2.667466 -0.067297
0.826137 -2.668726 -0.033657
0.826345 -2.669147 0.000000
0.826137 -2.668726 0.033657
0.825513 -2.667466 0.067297
0.824474 -2.665366 0.100904
0.823019 -2.662427 0.134459
0.821150 -2.658651 0.167947
0.818867 -2.654040 0.201350
0.816172 -2.648597 0.234652
0.813066 -2.642323 0.267835
0.809550 -2.635222 0.300884
0.805627 -2.627298 0.333781
0.801299 -2.618554 0.366511
0.796566 -2.608995 0.399055
0.791433 -2.598626 0.431399
0.785901 -2.587453 0.463525
0.779974 -2.575480 0.495419
0.773653 -2.562713 0.527062
0.766944 -2.549160 0.558440
0.759848 -2.534827 0.589538
0.752369 -2.519720 0.620338
0.744512 -2.503849 0.650826
0.736279 -2.487220 0.680986
0.727676 -2.469843 0.710803
0.718707 -2.451725 0.740262
0.709375 -2.432877 0.769349
0.699687 -2.413307 0.798048
0.689646 -2.393025 0.826345
0.679258 -2.372042 0.854227
0.668528 -2.350368 0.881678
0.657461 -2.328014 0.908685
0.646063 -2.304991 0.935235
0.634340 -2.281312 0.961313
0.622297 -2.256987 0.986908
0.609941 -2.232029 1.012006
0.597278 -2.206451 1.036594
0.584314 -2.180265 1.060660
0.571056 -2.153485 1.084192
0.557511 -2.126124 1.107178
0.543685 -2.098196 1.129607
0.529585 -2.069715 1.151467
0.515218 -2.040696 1.172747
0.500592 -2.011152 1.193437
0.485714 -1.981100 1.213525
0.470591 -1.950553 1.233003
0.455231 -1.919528 1.251860
0.439642 -1.888039 1.270086
0.423832 -1.856104 1.287673
0.407808 -1.823738 1.304612
0.391579 -1.790956 1.320893
0.375153 -1.757777 1.336510
0.358538 -1.724216 1.351453
0.341742 -1.690290 1.365716
0.324774 -1.656016 1.379292
0.307643 -1.621413 1.392172
0.290357 -1.586496 1.404352
0.272925 -1.551284 1.415825
0.255355 -1.515795 1.426585
0.237656 -1.480045 1.436626
0.219838 -1.444054 1.445944
0.201910 -1.407840 1.454534
0.183879 -1.371420 1.462392
0.165756 -1.334813 1.469513
0.147550 -1.298038 1.475894
0.129269 -1.261112 1.481533
0.110923 -1.224055 1.486425
0.092521 -1.186885 1.490568
0.074073 -1.149621 1.493961
0.055587 -1.112282 1.496602
0.037074 -1.074886 1.498490
0.018542 -1.037452 1.499622
0.000000 1.000000 1.500000
0.000000 1.000000 -1.500000
0.019783 -1.036306 -1.499622
0.039556 -1.072593 -1.498490
0.059310 -1.108844 -1.496602
0.079033 -1.145039 -1.493961
0.098717 -1.181162 -1.490568
0.118351 -1.217194 -1.486425
0.137925 -1.253116 -1.481533
0.157430 -1.288911 -1.475894
0.176855 -1.324560 -1.469513
0.196192 -1.360046 -1.462392
0.215430 -1.395351 -1.454534
0.234559 -1.430457 -1.445944
0.253570 -1.465345 -1.436626
0.272453 -1.500000 -1.426585
0.291200 -1.534403 -1.415825
0.309799 -1.568536 -1.404352
0.328243 -1.602384 -1.392172
0.346521 -1.635928 -1.379292
0.364625 -1.669152 -1.365716
0.382546 -1.702039 -1.351453
0.400273 -1.734572 -1.336510
0.417800 -1.766736 -1.320893
0.435115 -1.798513 -1.304612
0.452212 -1.829888 -1.287673
0.469081 -1.860846 -1.270086
0.485714 -1.891370 -1.251860
0.502102 -1.921445 -1.233003
0.518237 -1.951057 -1.213525
0.534112 -1.980189 -1.193437
0.549717 -2.008828 -1.172747
0.565046 -2.036959 -1.151467
0.580090 -2.064567 -1.129607
0.594842 -2.091640 -1.107178
0.609295 -2.118163 -1.084192
0.623440 -2.144123 -1.060660
0.637272 -2.169507 -1.036594
0.650783 -2.194302 -1.012006
0.663966 -2.218495 -0.986908
0.676815 -2.242075 -0.961313
0.689324 -2.265030 -0.935235
0.701485 -2.287348 -0.908685
0.713292 -2.309017 -0.881678
0.724741 -2.330027 -0.854227
0.735825 -2.350368 -0.826345
0.746538 -2.370029 -0.798048
0.756875 -2.388999 -0.769349
0.766832 -2.407271 -0.740262
0.776402 -2.424834 -0.710803
0.785581 -2.441679 -0.680986
0.794364 -2.457798 -0.650826
0.802748 -2.473184 -0.620338
0.810727 -2.487827 -0.589538
0.818298 -2.501722 -0.558440
0.825458 -2.514860 -0.527062
0.832201 -2.527235 -0.495419
0.838525 -2.538842 -0.463525
0.844428 -2.549673 -0.431399
0.849905 -2.559725 -0.399055
0.854954 -2.568991 -0.366511
0.859572 -2.577466 -0.333781
0.863758 -2.585148 -0.300884
0.867509 -2.592032 -0.267835
0.870823 -2.598113 -0.234652
0.873698 -2.603390 -0.201350
0.876134 -2.607860 -0.167947
0.878129 -2.611520 -0.134459
0.879681 -2.614369 -0.100904
0.880790 -2.616405 -0.067297
0.881456 -2.617627 -0.033657
0.881678 -2.618034 0.000000
0.881456 -2.617627 0.033657
0.880790 -2.616405 0.067297
0.879681 -2.614369 0.100904
0.878129 -2.611520 0.134459
0.876134 -2.607860 0.167947
0.873698 -2.603390 0.201350
0.870823 -2.598113 0.234652
0.867509 -2.592032 0.267835
0.863758 -2.585148 0.300884
0.859572 -2.577466 0.333781
0.854954 -2.568991 0.366511
0.849905 -2.559725 0.399055
0.844428 -2.549673 0.431399
0.838525 -2.538842 0.463525
0.832201 -2.527235 0.495419
0.825458 -2.514860 0.527062
0.818298 -2.501722 0.558440
0.810727 -2.487827 0.589538
0.802748 -2.473184 0.620338
0.794364 -2.457798 0.650826
0.785581 -2.441679 0.680986
0.776402 -2.424834 0.710803
0.766832 -2.407271 0.740262
0.756875 -2.388999 0.769349
0.746538 -2.370029 0.798048
0.735825 -2.350368 0.826345
0.724741 -2.330027 0.854227
0.713292 -2.309017 0.881678
0.701485 -2.287348 0.908685
0.689324 -2.265030 0.935235
0.676815 -2.242075 0.961313
0.663966 -2.218495 0.986908
0.650783 -2.194302 1.012006
0.637272 -2.169507 1.036594
0.623440 -2.144123 1.060660
0.609295 -2.118163 1.084192
0.594842 -2.091640 1.107178
0.580090 -2.064567 1.129607
0.565046 -2.036959 1.151467
0.549717 -2.008828 1.172747
0.534112 -1.980189 1.193437
0.518237 -1.951057 1.213525
0.502102 -1.921445 1.233003
0.485714 -1.891370 1.251860
0.469081 -1.860846 1.270086
0.452212 -1.829888 1.287673
0.435115 -1.798513 1.304612
0.417800 -1.766736 1.320893
0.400273 -1.734572 1.336510
0.382546 -1.702039 1.351453
0.364625 -1.669152 1.365716
0.346521 -1.635928 1.379292
0.328243 -1.602384 1.392172
0.309799 -1.568536 1.404352
0.291200 -1.534403 1.415825
0.272453 -1.500000 1.426585
0.253570 -1.465345 1.436626
0.234559 -1.430457 1.445944
0.215430 -1.395351 1.454534
0.196192 -1.360046 1.462392
0.176855 -1.324560 1.469513
0.157430 -1.288911 1.475894
0.137925 -1.253116 1.481533
0.118351 -1.217194 1.486425
0.098717 -1.181162 1.490568
0.079033 -1.145039 1.493961
0.059310 -1.108844 1.496602
0.039556 -1.072593 1.498490
0.019783 -1.036306 1.499622
0.000000 1.000000 1.500000
0.000000 1.000000 -1.500000
0.020985 -1.035086 -1.499622
0.041959 -1.070153 -1.498490
0.062912 -1.105186 -1.496602
0.083834 -1.140166 -1.493961
0.104713 -1.175075 -1.490568
0.125540 -1.209896 -1.486425
0.146303 -1.244611 -1.481533
0.166993 -1.279203 -1.475894
0.187598 -1.313654 -1.469513
0.208109 -1.347948 -1.462392
0.228516 -1.382066 -1.454534
0.248807 -1.415992 -1.445944
0.268973 -1.449708 -1.436626
0.289003 -1.483198 -1.426585
0.308888 -1.516445 -1.415825
0.328618 -1.549432 -1.404352
0.348182 -1.582142 -1.392172
0.367571 -1.614559 -1.379292
0.386774 -1.646666 -1.365716
0.405783 -1.678448 -1.351453
0.424588 -1.709888 -1.336510
0.443178 -1.740971 -1.320893
0.461546 -1.771681 -1.304612
0.479681 -1.802002 -1.287673
0.497575 -1.831919 -1.270086
0.515218 -1.861417 -1.251860
0.532602 -1.890482 -1.233003
0.549717 -1.919098 -1.213525
0.566556 -1.947251 -1.193437
0.583109 -1.974928 -1.172747
0.599369 -2.002113 -1.151467
0.615327 -2.028794 -1.129607
0.630975 -2.054957 -1.107178
0.646306 -2.080589 -1.084192
0.661311 -2.105677 -1.060660
0.675983 -2.130208 -1.036594
0.690315 -2.154169 -1.012006
0.704299 -2.177550 -0.986908
0.717928 -2.200338 -0.961313
0.731196 -2.222521 -0.935235
0.744096 -2.244089 -0.908685
0.756621 -2.265030 -0.881678
0.768765 -2.285334 -0.854227
0.780522 -2.304991 -0.826345
0.791886 -2.323991 -0.798048
0.802851 -2.342325 -0.769349
0.813412 -2.359982 -0.740262
0.823564 -2.376955 -0.710803
0.833300 -2.393234 -0.680986
0.842617 -2.408812 -0.650826
0.851510 -2.423680 -0.620338
0.859974 -2.437832 -0.589538
0.868005 -2.451259 -0.558440
0.875599 -2.463956 -0.527062
0.882752 -2.475915 -0.495419
0.889461 -2.487132 -0.463525
0.895722 -2.497599 -0.431399
0.901532 -2.507313 -0.399055
0.906887 -2.516268 -0.366511
0.911786 -2.524459 -0.333781
0.916226 -2.531882 -0.300884
0.920205 -2.538534 -0.267835
0.923720 -2.544412 -0.234652
0.926771 -2.549511 -0.201350
0.929354 -2.553831 -0.167947
0.931470 -2.557368 -0.134459
0.933116 -2.560121 -0.100904
0.934293 -2.562088 -0.067297
0.934999 -2.563269 -0.033657
0.935235 -2.563663 0.000000
0.934999 -2.563269 0.033657
0.934293 -2.562088 0.067297
0.933116 -2.560121 0.100904
0.931470 -2.557368 0.134459
0.929354 -2.553831 0.167947
0.926771 -2.549511 0.201350
0.923720 -2.544412 0.234652
0.920205 -2.538534 0.267835
0.916226 -2.531882 0.300884
0.911786 -2.524459 0.333781
0.906887 -2.516268 0.366511
0.901532 -2.507313 0.399055
0.895722 -2.497599 0.431399
0.889461 -2.487132 0.463525
0.882752 -2.475915 0.495419
0.875599 -2.463956 0.527062
0.868005 -2.451259 0.558440
0.859974 -2.437832 0.589538
0.851510 -2.423680 0.620338
0.842617 -2.408812 0.650826
0.833300 -2.393234 0.680986
0.823564 -2.376955 0.710803
0.813412 -2.359982 0.740262
0.802851 -2.342325 0.769349
0.791886 -2.323991 0.798048
0.780522 -2.304991 0.826345
0.768765 -2.285334 0.854227
0.756621 -2.265030 0.881678
0.744096 -2.244089 0.908685
0.731196 -2.222521 0.935235
0.717928 -2.200338 0.961313
0.704299 -2.177550 0.986908
0.690315 -2.154169 1.012006
0.675983 -2.130208 1.036594
0.661311 -2.105677 1.060660
0.646306 -2.080589 1.084192
0.630975 -2.054957 1.107178
0.615327 -2.028794 1.129607
0.599369 -2.002113 1.151467
0.583109 -1.974928 1.172747
0.566556 -1.947251 1.193437
0.549717 -1.919098 1.213525
0.532602 -1.890482 1.233003
0.515218 -1.861417 1.251860
0.497575 -1.831919 1.270086
0.479681 -1.802002 1.287673
0.461546 -1.771681 1.304612
0.443178 -1.740971 1.320893
0.424588 -1.709888 1.336510
0.405783 -1.678448 1.351453
0.386774 -1.646666 1.365716
0.367571 -1.614559 1.379292
0.348182 -1.582142 1.392172
0.328618 -1.549432 1.404352
0.308888 -1.516445 1.415825
0.289003 -1.483198 1.426585
0.268973 -1.449708 1.436626
0.248807 -1.415992 1.445944
0.228516 -1.382066 1.454534
0.208109 -1.347948 1.462392
0.187598 -1.313654 1.469513
0.166993 -1.279203 1.475894
0.146303 -1.244611 1.481533
0.125540 -1.209896 1.486425
0.104713 -1.175075 1.490568
0.083834 -1.140166 1.493961
0.062912 -1.105186 1.496602
0.041959 -1.070153 1.498490
0.020985 -1.035086 1.499622
0.000000 1.000000 1.500000
0.000000 1.000000 -1.500000
0.022144 -1.033795 -1.499622
0.044277 -1.067573 -1.498490
0.066388 -1.101317 -1.496602
0.088466 -1.135010 -1.493961
0.110499 -1.168635 -1.490568
0.132476 -1.202174 -1.486425
0.154386 -1.235613 -1.481533
0.176219 -1.268932 -1.475894
0.197963 -1.302116 -1.469513
0.219608 -1.335148 -1.462392
0.241142 -1.368012 -1.454534
0.262554 -1.400690 -1.445944
0.283834 -1.433166 -1.436626
0.304971 -1.465424 -1.426585
0.325955 -1.497447 -1.415825
0.346775 -1.529221 -1.404352
0.367420 -1.560727 -1.392172
0.387880 -1.591952 -1.379292
0.408144 -1.622878 -1.365716
0.428203 -1.653491 -1.351453
0.448047 -1.683775 -1.336510
0.467665 -1.713714 -1.320893
0.487047 -1.743294 -1.304612
0.506184 -1.772500 -1.287673
0.525067 -1.801316 -1.270086
0.543685 -1.829730 -1.251860
0.562029 -1.857725 -1.233003
0.580090 -1.885289 -1.213525
0.597859 -1.912406 -1.193437
0.615327 -1.939065 -1.172747
0.632485 -1.965250 -1.151467
0.649325 -1.990950 -1.129607
0.665838 -2.016150 -1.107178
0.682015 -2.040839 -1.084192
0.697849 -2.065004 -1.060660
0.713332 -2.088632 -1.036594
0.728456 -2.111713 -1.012006
0.743212 -2.134233 -0.986908
0.757595 -2.156183 -0.961313
0.771596 -2.177550 -0.935235
0.785208 -2.198324 -0.908685
0.798425 -2.218495 -0.881678
0.811240 -2.238053 -0.854227
0.823647 -2.256987 -0.826345
0.835639 -2.275288 -0.798048
0.847210 -2.292947 -0.769349
0.858355 -2.309954 -0.740262
0.869067 -2.326303 -0.710803
0.879342 -2.341983 -0.680986
0.889173 -2.356988 -0.650826
0.898558 -2.371309 -0.620338
0.907489 -2.384940 -0.589538
0.915964 -2.397874 -0.558440
0.923978 -2.410104 -0.527062
0.931526 -2.421623 -0.495419
0.938605 -2.432427 -0.463525
0.945212 -2.442510 -0.431399
0.951343 -2.451866 -0.399055
0.956994 -2.460491 -0.366511
0.962164 -2.468381 -0.333781
0.966850 -2.475531 -0.300884
0.971048 -2.481939 -0.267835
0.974758 -2.487600 -0.234652
0.977976 -2.492512 -0.201350
0.980703 -2.496673 -0.167947
0.982935 -2.500080 -0.134459
0.984673 -2.502731 -0.100904
0.985914 -2.504626 -0.067297
0.986660 -2.505764 -0.033657
0.986908 -2.506143 0.000000
0.986660 -2.505764 0.033657
0.985914 -2.504626 0.067297
0.984673 -2.502731 0.100904
0.982935 -2.500080 0.134459
0.980703 -2.496673 0.167947
0.977976 -2.492512 0.201350
0.974758 -2.487600 0.234652
0.971048 -2.481939 0.267835
0.966850 -2.475531 0.300884
0.962164 -2.468381 0.333781
0.956994 -2.460491 0.366511
0.951343 -2.451866 0.399055
0.945212 -2.442510 0.431399
0.938605 -2.432427 0.463525
0.931526 -2.421623 0.495419
0.923978 -2.410104 0.527062
0.915964 -2.397874 0.558440
0.907489 -2.384940 0.589538
0.898558 -2.371309 0.620338
0.889173 -2.356988 0.650826
0.879342 -2.341983 0.680986
0.869067 -2.326303 0.710803
0.858355 -2.309954 0.740262
0.847210 -2.292947 0.769349
0.835639 -2.275288 0.798048
0.823647 -2.256987 0.826345
0.811240 -2.238053 0.854227
0.798425 -2.218495 0.881678
0.785208 -2.198324 0.908685
0.771596 -2.177550 0.935235
0.757595 -2.156183 0.961313
0.743212 -2.134233 0.986908
0.728456 -2.111713 1.012006
0.713332 -2.088632 1.036594
0.697849 -2.065004 1.060660
0.682015 -2.040839 1.084192
0.665838 -2.016150 1.107178
0.649325 -1.990950 1.129607
0.632485 -1.965250 1.151467
0.615327 -1.939065 1.172747
0.597859 -1.912406 1.193437
0.580090 -1.885289 1.213525
0.562029 -1.857725 1.233003
0.543685 -1.829730 1.251860
0.525067 -1.801316 1.270086
0.506184 -1.772500 1.287673
0.487047 -1.743294 1.304612
0.467665 -1.713714 1.320893
0.448047 -1.683775 1.336510
0.428203 -1.653491 1.351453
0.408144 -1.622878 1.365716
0.387880 -1.591952 1.379292
0.367420 -1.560727 1.392172
0.346775 -1.529221 1.404352
0.325955 -1.497447 1.415825
0.304971 -1.465424 1.426585
0.283834 -1.433166 1.436626
0.262554 -1.400690 1.445944
0.241142 -1.368012 1.454534
0.219608 -1.335148 1.462392
0.197963 -1.302116 1.469513
0.176219 -1.268932 1.475894
0.154386 -1.235613 1.481533
0.132476 -1.202174 1.486425
0.110499 -1.168635 1.490568
0.088466 -1.135010 1.493961
0.066388 -1.101317 1.496602
0.044277 -1.067573 1.498490
0.022144 -1.033795 1.499622
0.000000 1.000000 1.500000
0.000000 1.000000 -1.500000
0.023259 -1.032436 -1.499622
0.046507 -1.064856 -1.498490
0.069731 -1.097243 -1.496602
0.092920 -1.129582 -1.493961
0.116062 -1.161855 -1.490568
0.139145 -1.194046 -1.486425
0.162159 -1.226140 -1.481533
0.185091 -1.258120 -1.475894
0.207930 -1.289970 -1.469513
0.230664 -1.321674 -1.462392
0.253282 -1.353216 -1.454534
0.275772 -1.384580 -1.445944
0.298124 -1.415751 -1.436626
0.320325 -1.446712 -1.426585
0.342365 -1.477448 -1.415825
0.364233 -1.507944 -1.404352
0.385917 -1.538184 -1.392172
0.407407 -1.568153 -1.379292
0.428692 -1.597836 -1.365716
0.449761 -1.627218 -1.351453
0.470604 -1.656284 -1.336510
0.491209 -1.685020 -1.320893
0.511568 -1.713410 -1.304612
0.531668 -1.741442 -1.287673
0.551501 -1.769100 -1.270086
0.571056 -1.796371 -1.251860
0.590324 -1.823241 -1.233003
0.609295 -1.849696 -1.213525
0.627958 -1.875724 -1.193437
0.646306 -1.901310 -1.172747
0.664328 -1.926443 -1.151467
0.682015 -1.951109 -1.129607
0.699359 -1.975297 -1.107178
0.716351 -1.998993 -1.084192
0.732983 -2.022186 -1.060660
0.749245 -2.044865 -1.036594
0.765130 -2.067017 -1.012006
0.780629 -2.088632 -0.986908
0.795736 -2.109699 -0.961313
0.810442 -2.130208 -0.935235
0.824740 -2.150147 -0.908685
0.838622 -2.169507 -0.881678
0.852082 -2.188278 -0.854227
0.865114 -2.206451 -0.826345
0.877709 -2.224016 -0.798048
0.889863 -2.240965 -0.769349
0.901568 -2.257289 -0.740262
0.912820 -2.272980 -0.710803
0.923612 -2.288030 -0.680986
0.933939 -2.302431 -0.650826
0.943796 -2.316177 -0.620338
0.953177 -2.329260 -0.589538
0.962078 -2.341673 -0.558440
0.970495 -2.353412 -0.527062
0.978424 -2.364468 -0.495419
0.985859 -2.374838 -0.463525
0.992799 -2.384515 -0.431399
0.999238 -2.393495 -0.399055
1.005174 -2.401773 -0.366511
1.010604 -2.409346 -0.333781
1.015526 -2.416209 -0.300884
1.019935 -2.422359 -0.267835
1.023832 -2.427792 -0.234652
1.027213 -2.432507 -0.201350
1.030076 -2.436500 -0.167947
1.032421 -2.439770 -0.134459
1.034246 -2.442315 -0.100904
1.035550 -2.444134 -0.067297
1.036333 -2.445226 -0.033657
1.036594 -2.445590 0.000000
1.036333 -2.445226 0.033657
1.035550 -2.444134 0.067297
1.034246 -2.442315 0.100904
1.032421 -2.439770 0.134459
1.030076 -2.436500 0.167947
1.027213 -2.432507 0.201350
1.023832 -2.427792 0.234652
1.019935 -2.422359 0.267835
1.015526 -2.416209 0.300884
1.010604 -2.409346 0.333781
1.005174 -2.401773 0.366511
0.999238 -2.393495 0.399055
0.992799 -2.384515 0.431399
0.985859 -2.374838 0.463525
0.978424 -2.364468 0.495419
0.970495 -2.353412 0.527062
0.962078 -2.341673 0.558440
0.953177 -2.329260 0.589538
0.943796 -2.316177 0.620338
0.933939 -2.302431 0.650826
0.923612 -2.288030 0.680986
0.912820 -2.272980 0.710803
0.901568 -2.257289 0.740262
0.889863 -2.240965 0.769349
0.877709 -2.224016 0.798048
0.865114 -2.206451 0.826345
0.852082 -2.188278 0.854227
0.838622 -2.169507 0.881678
0.824740 -2.150147 0.908685
0.810442 -2.130208 0.935235
0.795736 -2.109699 0.961313
0.780629 -2.088632 0.986908
0.765130 -2.067017 1.012006
0.749245 -2.044865 1.036594
0.732983 -2.022186 1.060660
0.716351 -1.998993 1.084192
0.699359 -1.975297 1.107178
0.682015 -1.951109 1.129607
0.664328 -1.926443 1.151467
0.646306 -1.901310 1.172747
0.627958 -1.875724 1.193437
0.609295 -1.849696 1.213525
0.590324 -1.823241 1.233003
0.571056 -1.796371 1.251860
0.551501 -1.769100 1.270086
0.531668 -1.741442 1.287673
0.511568 -1.713410 1.304612
0.491209 -1.685020 1.320893
0.470604 -1.656284 1.336510
0.449761 -1.627218 1.351453
0.428692 -1.597836 1.365716
0.407407 -1.568153 1.379292
0.385917 -1.538184 1.392172
0.364233 -1.507944 1.404352
0.342365 -1.477448 1.415825
0.320325 -1.446712 1.426585
0.298124 -1.415751 1.436626
0.275772 -1.384580 1.445944
0.253282 -1.353216 1.454534
0.230664 -1.321674 1.462392
0.207930 -1.289970 1.469513
0.185091 -1.258120 1.475894
0.162159 -1.226140 1.481533
0.139145 -1.194046 1.486425
0.116062 -1.161855 1.490568
0.092920 -1.129582 1.493961
0.069731 -1.097243 1.496602
0.046507 -1.064856 1.498490
0.023259 -1.032436 1.499622
0.000000 1.000000 1.500000
0.000000 1.000000 -1.500000
0.024327 -1.031012 -1.499622
0.048642 -1.062009 -1.498490
0.072933 -1.092974 -1.496602
0.097186 -1.123893 -1.493961
0.121391 -1.154749 -1.490568
0.145535 -1.185527 -1.486425
0.169605 -1.216212 -1.481533
0.193590 -1.246788 -1.475894
0.217477 -1.277240 -1.469513
0.241255 -1.307552 -1.462392
0.264912 -1.337709 -1.454534
0.288435 -1.367696 -1.445944
0.311813 -1.397498 -1.436626
0.335034 -1.427100 -1.426585
0.358086 -1.456487 -1.415825
0.380958 -1.485644 -1.404352
0.403638 -1.514556 -1.392172
0.426115 -1.543210 -1.379292
0.448377 -1.571590 -1.365716
0.470413 -1.599682 -1.351453
0.492213 -1.627472 -1.336510
0.513765 -1.654946 -1.320893
0.535058 -1.682090 -1.304612
0.556081 -1.708891 -1.287673
0.576825 -1.735335 -1.270086
0.597278 -1.761409 -1.251860
0.617431 -1.787099 -1.233003
0.637272 -1.812393 -1.213525
0.656793 -1.837278 -1.193437
0.675983 -1.861741 -1.172747
0.694832 -1.885770 -1.151467
0.713332 -1.909354 -1.129607
0.731473 -1.932479 -1.107178
0.749245 -1.955135 -1.084192
0.766640 -1.977310 -1.060660
0.783649 -1.998993 -1.036594
0.800263 -2.020173 -1.012006
0.816474 -2.040839 -0.986908
0.832275 -2.060981 -0.961313
0.847656 -2.080589 -0.935235
0.862610 -2.099653 -0.908685
0.877130 -2.118163 -0.881678
0.891208 -2.136110 -0.854227
0.904838 -2.153485 -0.826345
0.918012 -2.170279 -0.798048
0.930724 -2.186484 -0.769349
0.942967 -2.202091 -0.740262
0.954735 -2.217093 -0.710803
0.966022 -2.231483 -0.680986
0.976824 -2.245252 -0.650826
0.987133 -2.258394 -0.620338
0.996945 -2.270903 -0.589538
1.006255 -2.282771 -0.558440
1.015059 -2.293994 -0.527062
1.023351 -2.304565 -0.495419
1.031128 -2.314479 -0.463525
1.038386 -2.323732 -0.431399
1.045121 -2.332317 -0.399055
1.051330 -2.340232 -0.366511
1.057009 -2.347473 -0.333781
1.062157 -2.354034 -0.300884
1.066769 -2.359914 -0.267835
1.070844 -2.365109 -0.234652
1.074380 -2.369617 -0.201350
1.077375 -2.373435 -0.167947
1.079828 -2.376561 -0.134459
1.081736 -2.378995 -0.100904
1.083101 -2.380734 -0.067297
1.083919 -2.381777 -0.033657
1.084192 -2.382125 0.000000
1.083919 -2.381777 0.033657
1.083101 -2.380734 0.067297
1.081736 -2.378995 0.100904
1.079828 -2.376561 0.134459
1.077375 -2.373435 0.167947
1.074380 -2.369617 0.201350
1.070844 -2.365109 0.234652
1.066769 -2.359914 0.267835
1.062157 -2.354034 0.300884
1.057009 -2.347473 0.333781
1.051330 -2.340232 0.366511
1.045121 -2.332317 0.399055
1.038386 -2.323732 0.431399
1.031128 -2.314479 0.463525
1.023351 -2.304565 0.495419
1.015059 -2.293994 0.527062
1.006255 -2.282771 0.558440
0.996945 -2.270903 0.589538
0.987133 -2.258394 0.620338
0.976824 -2.245252 0.650826
0.966022 -2.231483 0.680986
0.954735 -2.217093 0.710803
0.942967 -2.202091 0.740262
0.930724 -2.186484 0.769349
0.918012 -2.170279 0.798048
0.904838 -2.153485 0.826345
0.891208 -2.136110 0.854227
0.877130 -2.118163 0.881678
0.862610 -2.099653 0.908685
0.847656 -2.080589 0.935235
0.832275 -2.060981 0.961313
0.816474 -2.040839 0.986908
0.800263 -2.020173 1.012006
0.783649 -1.998993 1.036594
0.766640 -1.977310 1.060660
0.749245 -1.955135 1.084192
0.731473 -1.932479 1.107178
0.713332 -1.909354 1.129607
0.694832 -1.885770 1.151467
0.675983 -1.861741 1.172747
0.656793 -1.837278 1.193437
0.637272 -1.812393 1.213525
0.617431 -1.787099 1.233003
0.597278 -1.761409 1.251860
0.576825 -1.735335 1.270086
0.556081 -1.708891 1.287673
0.535058 -1.682090 1.304612
0.513765 -1.654946 1.320893
0.492213 -1.627472 1.336510
0.470413 -1.599682 1.351453
0.448377 -1.571590 1.365716
0.426115 -1.543210 1.379292
0.403638 -1.514556 1.392172
0.380958 -1.485644 1.404352
0.358086 -1.456487 1.415825
0.335034 -1.427100 1.426585
0.311813 -1.397498 1.436626
0.288435 -1.367696 1.445944
0.264912 -1.337709 1.454534
0.241255 -1.307552 1.462392
0.217477 -1.277240 1.469513
0.193590 -1.246788 1.475894
0.169605 -1.216212 1.481533
0.145535 -1.185527 1.486425
0.121391 -1.154749 1.490568
0.097186 -1.123893 1.493961
0.072933 -1.092974 1.496602
0.048642 -1.062009 1.498490
0.024327 -1.031012 1.499622
0.000000 1.000000 1.500000
0.000000 1.000000 -1.500000
0.025346 -1.029526 -1.499622
0.050680 -1.059037 -1.498490
0.075988 -1.088518 -1.496602
0.101257 -1.117954 -1.493961
0.126476 -1.147332 -1.490568
0.151631 -1.176635 -1.486425
0.176709 -1.205849 -1.481533
0.201699 -1.234959 -1.475894
0.226587 -1.263951 -1.469513
0.251361 -1.292810 -1.462392
0.276009 -1.321522 -1.454534
0.300517 -1.350072 -1.445944
0.324874 -1.378445 -1.436626
0.349068 -1.406628 -1.426585
0.373086 -1.434607 -1.415825
0.396916 -1.462366 -1.404352
0.420546 -1.489893 -1.392172
0.443964 -1.517173 -1.379292
0.467159 -1.544192 -1.365716
0.490118 -1.570938 -1.351453
0.512831 -1.597396 -1.336510
0.535285 -1.623553 -1.320893
0.557470 -1.649396 -1.304612
0.579375 -1.674913 -1.287673
0.600987 -1.700089 -1.270086
0.622297 -1.724913 -1.251860
0.643294 -1.749372 -1.233003
0.663966 -1.773453 -1.213525
0.684305 -1.797145 -1.193437
0.704299 -1.820436 -1.172747
0.723938 -1.843314 -1.151467
0.743212 -1.865767 -1.129607
0.762113 -1.887784 -1.107178
0.780629 -1.909354 -1.084192
0.798753 -1.930466 -1.060660
0.816474 -1.951109 -1.036594
0.833785 -1.971274 -1.012006
0.850675 -1.990950 -0.986908
0.867137 -2.010126 -0.961313
0.883162 -2.028794 -0.935235
0.898743 -2.046944 -0.908685
0.913871 -2.064567 -0.881678
0.928539 -2.081654 -0.854227
0.942740 -2.098196 -0.826345
0.956466 -2.114185 -0.798048
0.969710 -2.129613 -0.769349
0.982466 -2.144473 -0.740262
0.994727 -2.158756 -0.710803
1.006487 -2.172455 -0.680986
1.017741 -2.185565 -0.650826
1.028482 -2.198077 -0.620338
1.038705 -2.209986 -0.589538
1.048405 -2.221286 -0.558440
1.057578 -2.231970 -0.527062
1.066217 -2.242035 -0.495419
1.074320 -2.251474 -0.463525
1.081882 -2.260283 -0.431399
1.088899 -2.268457 -0.399055
1.095368 -2.275993 -0.366511
1.101286 -2.282886 -0.333781
1.106648 -2.289133 -0.300884
1.111454 -2.294731 -0.267835
1.115700 -2.299677 -0.234652
1.119384 -2.303968 -0.201350
1.122504 -2.307603 -0.167947
1.125060 -2.310580 -0.134459
1.127048 -2.312897 -0.100904
1.128470 -2.314552 -0.067297
1.129323 -2.315546 -0.033657
1.129607 -2.315877 0.000000
1.129323 -2.315546 0.033657
1.128470 -2.314552 0.067297
1.127048 -2.312897 0.100904
1.125060 -2.310580 0.134459
1.122504 -2.307603 0.167947
1.119384 -2.303968 0.201350
1.115700 -2.299677 0.234652
1.111454 -2.294731 0.267835
1.106648 -2.289133 0.300884
1.101286 -2.282886 0.333781
1.095368 -2.275993 0.366511
1.088899 -2.268457 0.399055
1.081882 -2.260283 0.431399
1.074320 -2.251474 0.463525
1.066217 -2.242035 0.495419
1.057578 -2.231970 0.527062
1.048405 -2.221286 0.558440
1.038705 -2.209986 0.589538
1.028482 -2.198077 0.620338
1.017741 -2.185565 0.650826
1.006487 -2.172455 0.680986
0.994727 -2.158756 0.710803
0.982466 -2.144473 0.740262
0.969710 -2.129613 0.769349
0.956466 -2.114185 0.798048
0.942740 -2.098196 0.826345
0.928539 -2.081654 0.854227
0.913871 -2.064567 0.881678
0.898743 -2.046944 0.908685
0.883162 -2.028794 0.935235
0.867137 -2.010126 0.961313
0.850675 -1.990950 0.986908
0.833785 -1.971274 1.012006
0.816474 -1.951109 1.036594
0.798753 -1.930466 1.060660
0.780629 -1.909354 1.084192
0.762113 -1.887784 1.107178
0.743212 -1.865767 1.129607
0.723938 -1.843314 1.151467
0.704299 -1.820436 1.172747
0.684305 -1.797145 1.193437
0.663966 -1.773453 1.213525
0.643294 -1.749372 1.233003
0.622297 -1.724913 1.251860
0.600987 -1.700089 1.270086
0.579375 -1.674913 1.287673
0.557470 -1.649396 1.304612
0.535285 -1.623553 1.320893
0.512831 -1.597396 1.336510
0.490118 -1.570938 1.351453
0.467159 -1.544192 1.365716
0.443964 -1.517173 1.379292
0.420546 -1.489893 1.392172
0.396916 -1.462366 1.404352
0.373086 -1.434607 1.415825
0.349068 -1.406628 1.426585
0.324874 -1.378445 1.436626
0.300517 -1.350072 1.445944
0.276009 -1.321522 1.454534
0.251361 -1.292810 1.462392
0.226587 -1.263951 1.469513
0.201699 -1.234959 1.475894
0.176709 -1.205849 1.481533
0.151631 -1.176635 1.486425
0.126476 -1.147332 1.490568
0.101257 -1.117954 1.493961
0.075988 -1.088518 1.496602
0.050680 -1.059037 1.498490
0.025346 -1.029526 1.499622
0.000000 1.000000 1.500000
0.000000 1.000000 -1.500000
0.026314 -1.027980 -1.499622
0.052615 -1.055946 -1.498490
0.078890 -1.083883 -1.496602
0.105124 -1.111778 -1.493961
0.131306 -1.139617 -1.490568
0.157422 -1.167386 -1.486425
0.183458 -1.195071 -1.481533
0.209402 -1.222657 -1.475894
0.235241 -1.250131 -1.469513
0.260961 -1.277479 -1.462392
0.286550 -1.304688 -1.454534
0.311994 -1.331743 -1.445944
0.337281 -1.358630 -1.436626
0.362399 -1.385338 -1.426585
0.387334 -1.411851 -1.415825
0.412074 -1.438157 -1.404352
0.436606 -1.464243 -1.392172
0.460919 -1.490094 -1.379292
0.485000 -1.515699 -1.365716
0.508836 -1.541044 -1.351453
0.532416 -1.566117 -1.336510
0.555728 -1.590905 -1.320893
0.578760 -1.615395 -1.304612
0.601501 -1.639575 -1.287673
0.623939 -1.663433 -1.270086
0.646063 -1.686957 -1.251860
0.667861 -1.710136 -1.233003
0.689324 -1.732956 -1.213525
0.710439 -1.755408 -1.193437
0.731196 -1.777479 -1.172747
0.751585 -1.799159 -1.151467
0.771596 -1.820436 -1.129607
0.791218 -1.841300 -1.107178
0.810442 -1.861741 -1.084192
0.829258 -1.881748 -1.060660
0.847656 -1.901310 -1.036594
0.865627 -1.920419 -1.012006
0.883162 -1.939065 -0.986908
0.900253 -1.957237 -0.961313
0.916891 -1.974928 -0.935235
0.933066 -1.992128 -0.908685
0.948772 -2.008828 -0.881678
0.964001 -2.025020 -0.854227
0.978743 -2.040696 -0.826345
0.992993 -2.055848 -0.798048
1.006743 -2.070468 -0.769349
1.019986 -2.084549 -0.740262
1.032716 -2.098085 -0.710803
1.044925 -2.111067 -0.680986
1.056609 -2.123490 -0.650826
1.067760 -2.135347 -0.620338
1.078374 -2.146632 -0.589538
1.088444 -2.157340 -0.558440
1.097967 -2.167466 -0.527062
1.106937 -2.177003 -0.495419
1.115349 -2.185948 -0.463525
1.123200 -2.194296 -0.431399
1.130485 -2.202042 -0.399055
1.137201 -2.209183 -0.366511
1.143344 -2.215715 -0.333781
1.148912 -2.221635 -0.300884
1.153901 -2.226940 -0.267835
1.158309 -2.231627 -0.234652
1.162134 -2.235694 -0.201350
1.165373 -2.239139 -0.167947
1.168026 -2.241960 -0.134459
1.170091 -2.244155 -0.100904
1.171566 -2.245724 -0.067297
1.172452 -2.246666 -0.033657
1.172747 -2.246980 0.000000
1.172452 -2.246666 0.033657
1.171566 -2.245724 0.067297
1.170091 -2.244155 0.100904
1.168026 -2.241960 0.134459
1.165373 -2.239139 0.167947
1.162134 -2.235694 0.201350
1.158309 -2.231627 0.234652
1.153901 -2.226940 0.267835
1.148912 -2.221635 0.300884
1.143344 -2.215715 0.333781
1.137201 -2.209183 0.366511
1.130485 -2.202042 0.399055
1.123200 -2.194296 0.431399
1.115349 -2.185948 0.463525
1.106937 -2.177003 0.495419
1.097967 -2.167466 0.527062
1.088444 -2.157340 0.558440
1.078374 -2.146632 0.589538
1.067760 -2.135347 0.620338
1.056609 -2.123490 0.650826
1.044925 -2.111067 0.680986
1.032716 -2.098085 0.710803
1.019986 -2.084549 0.740262
1.006743 -2.070468 0.769349
0.992993 -2.055848 0.798048
0.978743 -2.040696 0.826345
0.964001 -2.025020 0.854227
0.948772 -2.008828 0.881678
0.933066 -1.992128 0.908685
0.916891 -1.974928 0.935235
0.900253 -1.957237 0.961313
0.883162 -1.939065 0.986908
0.865627 -1.920419 1.012006
0.847656 -1.901310 1.036594
0.829258 -1.881748 1.060660
0.810442 -1.861741 1.084192
0.791218 -1.841300 1.107178
