# .PCD v.7 - Point Cloud Data file format
VERSION .7
FIELDS x y z
SIZE 4 4 4
TYPE F F F
COUNT 1 1 1
WIDTH 400
HEIGHT 1
POINTS 400
DATA ascii
0.484042 -0.873235 -1.530584
0.623264 -1.124398 -1.331520
0.740538 -1.335965 -1.079373
0.831187 -1.499502 -0.784194
0.891600 -1.608488 -0.457751
0.919366 -1.658580 -0.113060
0.913379 -1.647779 0.236138
0.873878 -1.576517 0.575923
0.802437 -1.447634 0.892747
0.701904 -1.266269 1.173981
0.576289 -1.039652 1.408411
0.647878 -0.759664 -1.530584
0.834224 -0.978162 -1.331520
0.991192 -1.162213 -1.079373
1.112524 -1.304480 -0.784194
1.193384 -1.399292 -0.457751
1.230549 -1.442869 -0.113060
1.222535 -1.433473 0.236138
1.169664 -1.371479 0.575923
1.074042 -1.259358 0.892747
0.939482 -1.101581 1.173981
0.771348 -0.904437 1.408411
0.785886 -0.615808 -1.530584
1.011925 -0.792929 -1.331520
1.202330 -0.942127 -1.079373
1.349508 -1.057453 -0.784194
1.447593 -1.134311 -0.457751
1.492673 -1.169635 -0.113060
1.482953 -1.162019 0.236138
1.418819 -1.111764 0.575923
1.302829 -1.020876 0.892747
1.139605 -0.892977 1.173981
0.935657 -0.733166 1.408411
0.892563 -0.447401 -1.530584
1.149285 -0.576084 -1.331520
1.365535 -0.684481 -1.079373
1.532691 -0.768269 -0.784194
1.644090 -0.824108 -0.457751
1.695290 -0.849772 -0.113060
1.684250 -0.844238 0.236138
1.611411 -0.807727 0.575923
1.479675 -0.741694 0.892747
1.294296 -0.648772 1.173981
1.062663 -0.532665 1.408411
0.963656 -0.261158 -1.530584
1.240826 -0.336273 -1.331520
1.474300 -0.399547 -1.079373
1.654771 -0.448456 -0.784194
1.775042 -0.481050 -0.457751
1.830321 -0.496031 -0.113060
1.818402 -0.492801 0.236138
1.739760 -0.471489 0.575923
1.597532 -0.432944 0.892747
1.397387 -0.378703 1.173981
1.147305 -0.310929 1.408411
0.996331 -0.064504 -1.530584
1.282899 -0.083056 -1.331520
1.524290 -0.098684 -1.079373
1.710880 -0.110764 -0.784194
1.835230 -0.118815 -0.457751
1.892382 -0.122515 -0.113060
1.880059 -0.121717 0.236138
1.798751 -0.116453 0.575923
1.651701 -0.106933 0.892747
1.444769 -0.093536 1.173981
1.186207 -0.076796 1.408411
0.989286 0.134723 -1.530584
1.273828 0.173472 -1.331520
1.513511 0.206113 -1.079373
1.698782 0.231343 -0.784194
1.822252 0.248158 -0.457751
1.879001 0.255886 -0.113060
1.866764 0.254219 0.236138
1.786032 0.243225 0.575923
1.640021 0.223341 0.892747
1.434553 0.195360 1.173981
1.177819 0.160397 1.408411
0.942800 0.328578 -1.530584
1.213972 0.423085 -1.331520
1.442394 0.502692 -1.079373
1.618958 0.564227 -0.784194
1.736627 0.605237 -0.457751
1.790709 0.624085 -0.113060
1.779048 0.620021 0.236138
1.702109 0.593206 0.575923
1.562959 0.544711 0.892747
1.367145 0.476467 1.173981
1.122475 0.391197 1.408411
0.858729 0.509334 -1.530584
1.105720 0.655830 -1.331520
1.313772 0.779231 -1.079373
1.474592 0.874618 -0.784194
1.581768 0.938187 -0.457751
1.631028 0.967404 -0.113060
1.620406 0.961104 0.236138
1.550328 0.919539 0.575923
1.423586 0.844365 0.892747
1.245234 0.738580 1.173981
1.022382 0.606400 1.408411
0.740422 0.669784 -1.530584
0.953386 0.862430 -1.331520
1.132775 1.024705 -1.079373
1.271439 1.150140 -0.784194
1.363849 1.233734 -0.457751
1.406322 1.272155 -0.113060
1.397164 1.263871 0.236138
1.336740 1.209212 0.575923
1.227460 1.110357 0.892747
1.073679 0.971247 1.173981
0.881529 0.797428 1.408411
0.592598 0.803532 -1.530584
0.763043 1.034647 -1.331520
0.906617 1.229327 -1.079373
1.017597 1.379810 -0.784194
1.091558 1.480097 -0.457751
1.125551 1.526190 -0.113060
1.118222 1.516251 0.236138
1.069861 1.450677 0.575923
0.982399 1.332082 0.892747
0.859320 1.165194 1.173981
0.705532 0.956666 1.408411
0.460000 -0.000000 -0.000000
0.460000 -0.200000 -0.000000
0.460000 -0.400000 -0.000000
0.460000 -0.600000 -0.000000
0.460000 -0.800000 -0.000000
0.460000 -1.000000 -0.000000
0.460000 -1.200000 -0.000000
0.460000 -1.400000 -0.000000
0.460000 -1.600000 -0.000000
0.460000 -0.000000 -0.000000
0.460000 -0.196013 -0.039734
0.460000 -0.392027 -0.079468
0.460000 -0.588040 -0.119202
0.460000 -0.784053 -0.158935
0.460000 -0.980067 -0.198669
0.460000 -1.176080 -0.238403
0.460000 -1.372093 -0.278137
0.460000 -1.568107 -0.317871
0.460000 -0.000000 -0.000000
0.460000 -0.184212 -0.077884
0.460000 -0.368424 -0.155767
0.460000 -0.552637 -0.233651
0.460000 -0.736849 -0.311535
0.460000 -0.921061 -0.389418
0.460000 -1.105273 -0.467302
0.460000 -1.289485 -0.545186
0.460000 -1.473698 -0.623069
0.460000 -0.000000 -0.000000
0.460000 -0.165067 -0.112928
0.460000 -0.330134 -0.225857
0.460000 -0.495201 -0.338785
0.460000 -0.660268 -0.451714
0.460000 -0.825336 -0.564642
0.460000 -0.990403 -0.677571
0.460000 -1.155470 -0.790499
0.460000 -1.320537 -0.903428
0.460000 -0.000000 -0.000000
0.460000 -0.139341 -0.143471
0.460000 -0.278683 -0.286942
0.460000 -0.418024 -0.430414
0.460000 -0.557365 -0.573885
0.460000 -0.696707 -0.717356
0.460000 -0.836048 -0.860827
0.460000 -0.975389 -1.004299
0.460000 -1.114731 -1.147770
0.460000 -0.000000 -0.000000
0.460000 -0.108060 -0.168294
0.460000 -0.216121 -0.336588
0.460000 -0.324181 -0.504883
0.460000 -0.432242 -0.673177
0.460000 -0.540302 -0.841471
0.460000 -0.648363 -1.009765
0.460000 -0.756423 -1.178059
0.460000 -0.864484 -1.346354
0.460000 -0.000000 -0.000000
0.460000 -0.072472 -0.186408
0.460000 -0.144943 -0.372816
0.460000 -0.217415 -0.559223
0.460000 -0.289886 -0.745631
0.460000 -0.362358 -0.932039
0.460000 -0.434829 -1.118447
0.460000 -0.507301 -1.304855
0.460000 -0.579772 -1.491263
0.460000 -0.000000 -0.000000
0.460000 -0.033993 -0.197090
0.460000 -0.067987 -0.394180
0.460000 -0.101980 -0.591270
0.460000 -0.135974 -0.788360
0.460000 -0.169967 -0.985450
0.460000 -0.203961 -1.182540
0.460000 -0.237954 -1.379630
0.460000 -0.271947 -1.576720
0.460000 0.000000 -0.000000
0.460000 0.005840 -0.199915
0.460000 0.011680 -0.399829
0.460000 0.017520 -0.599744
0.460000 0.023360 -0.799659
0.460000 0.029200 -0.999574
0.460000 0.035039 -1.199488
0.460000 0.040879 -1.399403
0.460000 0.046719 -1.599318
0.460000 0.000000 -0.000000
0.460000 0.045440 -0.194770
0.460000 0.090881 -0.389539
0.460000 0.136321 -0.584309
0.460000 0.181762 -0.779078
0.460000 0.227202 -0.973848
0.460000 0.272643 -1.168617
0.460000 0.318083 -1.363387
0.460000 0.363523 -1.558156
0.460000 0.000000 -0.000000
0.460000 0.083229 -0.181859
0.460000 0.166459 -0.363719
0.460000 0.249688 -0.545578
0.460000 0.332917 -0.727438
0.460000 0.416147 -0.909297
0.460000 0.499376 -1.091157
0.460000 0.582606 -1.273016
0.460000 0.665835 -1.454876
0.460000 0.000000 -0.000000
0.460000 0.117700 -0.161699
0.460000 0.235400 -0.323399
0.460000 0.353101 -0.485098
0.460000 0.470801 -0.646797
0.460000 0.588501 -0.808496
0.460000 0.706201 -0.970196
0.460000 0.823902 -1.131895
0.460000 0.941602 -1.293594
0.460000 0.000000 -0.000000
0.460000 0.147479 -0.135093
0.460000 0.294957 -0.270185
0.460000 0.442436 -0.405278
0.460000 0.589915 -0.540371
0.460000 0.737394 -0.675463
0.460000 0.884872 -0.810556
0.460000 1.032351 -0.945648
0.460000 1.179830 -1.080741
0.460000 0.000000 -0.000000
0.460000 0.171378 -0.103100
0.460000 0.342756 -0.206201
0.460000 0.514133 -0.309301
0.460000 0.685511 -0.412401
0.460000 0.856889 -0.515501
0.460000 1.028267 -0.618602
0.460000 1.199644 -0.721702
0.460000 1.371022 -0.824802
0.460000 0.000000 -0.000000
0.460000 0.188444 -0.066998
0.460000 0.376889 -0.133995
0.460000 0.565333 -0.200993
0.460000 0.753778 -0.267991
0.460000 0.942222 -0.334988
0.460000 1.130667 -0.401986
0.460000 1.319111 -0.468983
0.460000 1.507556 -0.535981
0.460000 0.000000 -0.000000
0.460000 0.197998 -0.028224
0.460000 0.395997 -0.056448
0.460000 0.593995 -0.084672
0.460000 0.791994 -0.112896
0.460000 0.989992 -0.141120
0.460000 1.187991 -0.169344
0.460000 1.385989 -0.197568
0.460000 1.583988 -0.225792
0.460000 0.000000 0.000000
0.460000 0.199659 0.011675
0.460000 0.399318 0.023350
0.460000 0.598977 0.035024
0.460000 0.798636 0.046699
0.460000 0.998295 0.058374
0.460000 1.197954 0.070049
0.460000 1.397613 0.081724
0.460000 1.597272 0.093399
0.460000 0.000000 0.000000
0.460000 0.193360 0.051108
0.460000 0.386719 0.102216
0.460000 0.580079 0.153325
0.460000 0.773439 0.204433
0.460000 0.966798 0.255541
0.460000 1.160158 0.306649
0.460000 1.353517 0.357758
0.460000 1.546877 0.408866
0.460000 0.000000 0.000000
0.460000 0.179352 0.088504
0.460000 0.358703 0.177008
0.460000 0.538055 0.265512
0.460000 0.717407 0.354016
0.460000 0.896758 0.442520
0.460000 1.076110 0.531025
0.460000 1.255462 0.619529
0.460000 1.434813 0.708033
0.460000 0.000000 0.000000
0.460000 0.158194 0.122372
0.460000 0.316387 0.244743
0.460000 0.474581 0.367115
0.460000 0.632774 0.489486
0.460000 0.790968 0.611858
0.460000 0.949161 0.734229
0.460000 1.107355 0.856601
0.460000 1.265548 0.978973
0.460000 0.000000 0.000000
0.460000 0.130729 0.151360
0.460000 0.261457 0.302721
0.460000 0.392186 0.454081
0.460000 0.522915 0.605442
0.460000 0.653644 0.756802
0.460000 0.784372 0.908163
0.460000 0.915101 1.059523
0.460000 1.045830 1.210884
0.460000 0.000000 0.000000
0.460000 0.098052 0.174315
0.460000 0.196104 0.348630
0.460000 0.294156 0.522945
0.460000 0.392209 0.697261
0.460000 0.490261 0.871576
0.460000 0.588313 1.045891
0.460000 0.686365 1.220206
0.460000 0.784417 1.394521
0.460000 0.000000 0.000000
0.460000 0.061467 0.190320
0.460000 0.122933 0.380641
0.460000 0.184400 0.570961
0.460000 0.245866 0.761282
0.460000 0.307333 0.951602
0.460000 0.368799 1.141922
0.460000 0.430266 1.332243
0.460000 0.491733 1.522563
0.460000 0.000000 0.000000
0.460000 0.022431 0.198738
0.460000 0.044861 0.397476
0.460000 0.067292 0.596215
0.460000 0.089722 0.794953
0.460000 0.112153 0.993691
0.460000 0.134583 1.192429
0.460000 0.157014 1.391167
0.460000 0.179444 1.589906
0.460000 -0.000000 0.000000
0.460000 -0.017500 0.199233
0.460000 -0.035000 0.398466
0.460000 -0.052499 0.597699
0.460000 -0.069999 0.796932
0.460000 -0.087499 0.996165
0.460000 -0.104999 1.195398
0.460000 -0.122499 1.394630
0.460000 -0.139998 1.593863
0.460000 -0.000000 0.000000
0.460000 -0.056732 0.191785
0.460000 -0.113465 0.383570
0.460000 -0.170197 0.575355
0.460000 -0.226930 0.767139
0.460000 -0.283662 0.958924
0.460000 -0.340395 1.150709
0.460000 -0.397127 1.342494
0.460000 -0.453859 1.534279
0.460000 -0.000000 0.000000
0.460000 -0.093703 0.176691
0.460000 -0.187407 0.353382
0.460000 -0.281110 0.530073
0.460000 -0.374813 0.706764
0.460000 -0.468517 0.883455
0.460000 -0.562220 1.060146
0.460000 -0.655923 1.236837
0.460000 -0.749627 1.413527
0.460000 -0.000000 0.000000
0.460000 -0.126939 0.154553
0.460000 -0.253877 0.309106
0.460000 -0.380816 0.463659
0.460000 -0.507754 0.618212
0.460000 -0.634693 0.772764
0.460000 -0.761631 0.927317
0.460000 -0.888570 1.081870
0.460000 -1.015509 1.236423
0.460000 -0.000000 0.000000
0.460000 -0.155113 0.126253
0.460000 -0.310226 0.252507
0.460000 -0.465340 0.378760
0.460000 -0.620453 0.505013
0.460000 -0.775566 0.631267
0.460000 -0.930679 0.757520
0.460000 -1.085792 0.883773
0.460000 -1.240905 1.010027
0.460000 -0.000000 0.000000
0.460000 -0.177104 0.092920
0.460000 -0.354208 0.185841
0.460000 -0.531312 0.278761
0.460000 -0.708416 0.371682
0.460000 -0.885520 0.464602
0.460000 -1.062623 0.557523
0.460000 -1.239727 0.650443
0.460000 -1.416831 0.743363
0.460000 -0.000000 0.000000
0.460000 -0.192034 0.055883
0.460000 -0.384068 0.111766
0.460000 -0.576102 0.167649
0.460000 -0.768136 0.223532
0.460000 -0.960170 0.279415
0.460000 -1.152204 0.335299
0.460000 -1.344238 0.391182
0.460000 -1.536272 0.447065
