# .PCD v.7 - Point Cloud Data file format
VERSION .7
FIELDS x y z
SIZE 4 4 4
TYPE F F F
COUNT 1 1 1
WIDTH 423
HEIGHT 1
POINTS 423
DATA ascii
0.397084 -0.851550 -1.586039
0.524020 -1.123764 -1.407491
0.633434 -1.358404 -1.172832
0.720965 -1.546114 -0.891415
0.783123 -1.679412 -0.574460
0.817430 -1.752984 -0.234604
0.822518 -1.763895 0.114606
0.798185 -1.711713 0.459246
0.745400 -1.598516 0.785578
0.666268 -1.428817 1.080591
0.563944 -1.209383 1.332525
0.442507 -0.948960 1.531335
0.558346 -0.755688 -1.586039
0.736832 -0.997257 -1.407491
0.890681 -1.205482 -1.172832
1.013759 -1.372061 -0.891415
1.101160 -1.490353 -0.574460
1.149400 -1.555642 -0.234604
1.156554 -1.565326 0.114606
1.122339 -1.519018 0.459246
1.048118 -1.418564 0.785578
0.936850 -1.267969 1.080591
0.792970 -1.073237 1.332525
0.622216 -0.842132 1.531335
0.697348 -0.629698 -1.586039
0.920269 -0.830993 -1.407491
1.112419 -1.004502 -1.172832
1.266138 -1.143308 -0.891415
1.375298 -1.241879 -0.574460
1.435547 -1.296283 -0.234604
1.444482 -1.304352 0.114606
1.401749 -1.265764 0.459246
1.309050 -1.182058 0.785578
1.170081 -1.056571 1.080591
0.990383 -0.894305 1.332525
0.777119 -0.701730 1.531335
0.808550 -0.478604 -1.586039
1.067017 -0.631599 -1.407491
1.289808 -0.763475 -1.172832
1.468040 -0.868976 -0.891415
1.594606 -0.943894 -0.574460
1.664463 -0.985244 -0.234604
1.674824 -0.991377 0.114606
1.625276 -0.962048 0.459246
1.517795 -0.898427 0.785578
1.356666 -0.803050 1.080591
1.148312 -0.679720 1.332525
0.901040 -0.533352 1.531335
0.887516 -0.308430 -1.586039
1.171227 -0.407025 -1.407491
1.415777 -0.492011 -1.172832
1.611415 -0.560000 -0.891415
1.750343 -0.608280 -0.574460
1.827022 -0.634927 -0.234604
1.838395 -0.638880 0.114606
1.784008 -0.619979 0.459246
1.666030 -0.578979 0.785578
1.489164 -0.517515 1.080591
1.260462 -0.438036 1.332525
0.989040 -0.343712 1.531335
0.931101 -0.125960 -1.586039
1.228744 -0.166225 -1.407491
1.485303 -0.200932 -1.172832
1.690549 -0.228698 -0.891415
1.836300 -0.248415 -0.574460
1.916744 -0.259298 -0.234604
1.928675 -0.260912 0.114606
1.871618 -0.253193 0.459246
1.747846 -0.236449 0.785578
1.562295 -0.211348 1.080591
1.322361 -0.178889 1.332525
1.037610 -0.140368 1.531335
0.937565 0.061532 -1.586039
1.237275 0.081202 -1.407491
1.495615 0.098157 -1.172832
1.702286 0.111721 -0.891415
1.849048 0.121353 -0.574460
1.930051 0.126669 -0.234604
1.942065 0.127458 0.114606
1.884612 0.123687 0.459246
1.759981 0.115507 0.785578
1.573141 0.103245 1.080591
1.331542 0.087389 1.332525
1.044814 0.068571 1.531335
0.906651 0.246571 -1.586039
1.196479 0.325392 -1.407491
1.446302 0.393333 -1.172832
1.646158 0.447686 -0.891415
1.788081 0.486283 -0.574460
1.866413 0.507586 -0.234604
1.878031 0.510746 0.114606
1.822472 0.495636 0.459246
1.701950 0.462859 0.785578
1.521271 0.413722 1.080591
1.287638 0.350184 1.332525
1.010364 0.274777 1.531335
0.839593 0.421780 -1.586039
1.107984 0.556610 -1.407491
1.339328 0.672829 -1.172832
1.524403 0.765803 -0.891415
1.655829 0.831827 -0.574460
1.728368 0.868267 -0.234604
1.739126 0.873672 0.114606
1.687676 0.847826 0.459246
1.576069 0.791758 0.785578
1.408753 0.707705 1.080591
1.192400 0.599017 1.332525
0.935635 0.470028 1.531335
0.739062 0.580174 -1.586039
0.975317 0.765637 -1.407491
1.178961 0.925500 -1.172832
1.341875 1.053390 -0.891415
1.457564 1.144208 -0.574460
1.521417 1.194333 -0.234604
1.530888 1.201768 0.114606
1.485598 1.166215 0.459246
1.387354 1.089092 0.785578
1.240073 0.973474 1.080591
1.049625 0.823970 1.332525
0.823604 0.646541 1.531335
0.609067 0.715438 -1.586039
0.803767 0.944141 -1.407491
0.971591 1.141275 -1.172832
1.105850 1.298982 -0.891415
1.201191 1.410973 -0.574460
1.253813 1.472785 -0.234604
1.261617 1.481953 0.114606
1.224294 1.438111 0.459246
1.143330 1.343008 0.785578
1.021954 1.200434 1.080591
0.865005 1.016074 1.332525
0.678739 0.797278 1.531335
0.454791 0.822180 -1.586039
0.600173 1.085005 -1.407491
0.725488 1.311551 -1.172832
0.825739 1.492787 -0.891415
0.896930 1.621488 -0.574460
0.936223 1.692522 -0.234604
0.942050 1.703057 0.114606
0.914181 1.652674 0.459246
0.853725 1.543382 0.785578
0.763094 1.379536 1.080591
0.645900 1.167670 1.332525
0.506815 0.916230 1.531335
0.300000 -0.000000 -0.000000
0.300000 -0.200000 -0.000000
0.300000 -0.400000 -0.000000
0.300000 -0.600000 -0.000000
0.300000 -0.800000 -0.000000
0.300000 -1.000000 -0.000000
0.300000 -1.200000 -0.000000
0.300000 -1.400000 -0.000000
0.300000 -1.600000 -0.000000
0.300000 -0.000000 -0.000000
0.300000 -0.196013 -0.039734
0.300000 -0.392027 -0.079468
0.300000 -0.588040 -0.119202
0.300000 -0.784053 -0.158935
0.300000 -0.980067 -0.198669
0.300000 -1.176080 -0.238403
0.300000 -1.372093 -0.278137
0.300000 -1.568107 -0.317871
0.300000 -0.000000 -0.000000
0.300000 -0.184212 -0.077884
0.300000 -0.368424 -0.155767
0.300000 -0.552637 -0.233651
0.300000 -0.736849 -0.311535
0.300000 -0.921061 -0.389418
0.300000 -1.105273 -0.467302
0.300000 -1.289485 -0.545186
0.300000 -1.473698 -0.623069
0.300000 -0.000000 -0.000000
0.300000 -0.165067 -0.112928
0.300000 -0.330134 -0.225857
0.300000 -0.495201 -0.338785
0.300000 -0.660268 -0.451714
0.300000 -0.825336 -0.564642
0.300000 -0.990403 -0.677571
0.300000 -1.155470 -0.790499
0.300000 -1.320537 -0.903428
0.300000 -0.000000 -0.000000
0.300000 -0.139341 -0.143471
0.300000 -0.278683 -0.286942
0.300000 -0.418024 -0.430414
0.300000 -0.557365 -0.573885
0.300000 -0.696707 -0.717356
0.300000 -0.836048 -0.860827
0.300000 -0.975389 -1.004299
0.300000 -1.114731 -1.147770
0.300000 -0.000000 -0.000000
0.300000 -0.108060 -0.168294
0.300000 -0.216121 -0.336588
0.300000 -0.324181 -0.504883
0.300000 -0.432242 -0.673177
0.300000 -0.540302 -0.841471
0.300000 -0.648363 -1.009765
0.300000 -0.756423 -1.178059
0.300000 -0.864484 -1.346354
0.300000 -0.000000 -0.000000
0.300000 -0.072472 -0.186408
0.300000 -0.144943 -0.372816
0.300000 -0.217415 -0.559223
0.300000 -0.289886 -0.745631
0.300000 -0.362358 -0.932039
0.300000 -0.434829 -1.118447
0.300000 -0.507301 -1.304855
0.300000 -0.579772 -1.491263
0.300000 -0.000000 -0.000000
0.300000 -0.033993 -0.197090
0.300000 -0.067987 -0.394180
0.300000 -0.101980 -0.591270
0.300000 -0.135974 -0.788360
0.300000 -0.169967 -0.985450
0.300000 -0.203961 -1.182540
0.300000 -0.237954 -1.379630
0.300000 -0.271947 -1.576720
0.300000 0.000000 -0.000000
0.300000 0.005840 -0.199915
0.300000 0.011680 -0.399829
0.300000 0.017520 -0.599744
0.300000 0.023360 -0.799659
0.300000 0.029200 -0.999574
0.300000 0.035039 -1.199488
0.300000 0.040879 -1.399403
0.300000 0.046719 -1.599318
0.300000 0.000000 -0.000000
0.300000 0.045440 -0.194770
0.300000 0.090881 -0.389539
0.300000 0.136321 -0.584309
0.300000 0.181762 -0.779078
0.300000 0.227202 -0.973848
0.300000 0.272643 -1.168617
0.300000 0.318083 -1.363387
0.300000 0.363523 -1.558156
0.300000 0.000000 -0.000000
0.300000 0.083229 -0.181859
0.300000 0.166459 -0.363719
0.300000 0.249688 -0.545578
0.300000 0.332917 -0.727438
0.300000 0.416147 -0.909297
0.300000 0.499376 -1.091157
0.300000 0.582606 -1.273016
0.300000 0.665835 -1.454876
0.300000 0.000000 -0.000000
0.300000 0.117700 -0.161699
0.300000 0.235400 -0.323399
0.300000 0.353101 -0.485098
0.300000 0.470801 -0.646797
0.300000 0.588501 -0.808496
0.300000 0.706201 -0.970196
0.300000 0.823902 -1.131895
0.300000 0.941602 -1.293594
0.300000 0.000000 -0.000000
0.300000 0.147479 -0.135093
0.300000 0.294957 -0.270185
0.300000 0.442436 -0.405278
0.300000 0.589915 -0.540371
0.300000 0.737394 -0.675463
0.300000 0.884872 -0.810556
0.300000 1.032351 -0.945648
0.300000 1.179830 -1.080741
0.300000 0.000000 -0.000000
0.300000 0.171378 -0.103100
0.300000 0.342756 -0.206201
0.300000 0.514133 -0.309301
0.300000 0.685511 -0.412401
0.300000 0.856889 -0.515501
0.300000 1.028267 -0.618602
0.300000 1.199644 -0.721702
0.300000 1.371022 -0.824802
0.300000 0.000000 -0.000000
0.300000 0.188444 -0.066998
0.300000 0.376889 -0.133995
0.300000 0.565333 -0.200993
0.300000 0.753778 -0.267991
0.300000 0.942222 -0.334988
0.300000 1.130667 -0.401986
0.300000 1.319111 -0.468983
0.300000 1.507556 -0.535981
0.300000 0.000000 -0.000000
0.300000 0.197998 -0.028224
0.300000 0.395997 -0.056448
0.300000 0.593995 -0.084672
0.300000 0.791994 -0.112896
0.300000 0.989992 -0.141120
0.300000 1.187991 -0.169344
0.300000 1.385989 -0.197568
0.300000 1.583988 -0.225792
0.300000 0.000000 0.000000
0.300000 0.199659 0.011675
0.300000 0.399318 0.023350
0.300000 0.598977 0.035024
0.300000 0.798636 0.046699
0.300000 0.998295 0.058374
0.300000 1.197954 0.070049
0.300000 1.397613 0.081724
0.300000 1.597272 0.093399
0.300000 0.000000 0.000000
0.300000 0.193360 0.051108
0.300000 0.386719 0.102216
0.300000 0.580079 0.153325
0.300000 0.773439 0.204433
0.300000 0.966798 0.255541
0.300000 1.160158 0.306649
0.300000 1.353517 0.357758
0.300000 1.546877 0.408866
0.300000 0.000000 0.000000
0.300000 0.179352 0.088504
0.300000 0.358703 0.177008
0.300000 0.538055 0.265512
0.300000 0.717407 0.354016
0.300000 0.896758 0.442520
0.300000 1.076110 0.531025
0.300000 1.255462 0.619529
0.300000 1.434813 0.708033
0.300000 0.000000 0.000000
0.300000 0.158194 0.122372
0.300000 0.316387 0.244743
0.300000 0.474581 0.367115
0.300000 0.632774 0.489486
0.300000 0.790968 0.611858
0.300000 0.949161 0.734229
0.300000 1.107355 0.856601
0.300000 1.265548 0.978973
0.300000 0.000000 0.000000
0.300000 0.130729 0.151360
0.300000 0.261457 0.302721
0.300000 0.392186 0.454081
0.300000 0.522915 0.605442
0.300000 0.653644 0.756802
0.300000 0.784372 0.908163
0.300000 0.915101 1.059523
0.300000 1.045830 1.210884
0.300000 0.000000 0.000000
0.300000 0.098052 0.174315
0.300000 0.196104 0.348630
0.300000 0.294156 0.522945
0.300000 0.392209 0.697261
0.300000 0.490261 0.871576
0.300000 0.588313 1.045891
0.300000 0.686365 1.220206
0.300000 0.784417 1.394521
0.300000 0.000000 0.000000
0.300000 0.061467 0.190320
0.300000 0.122933 0.380641
0.300000 0.184400 0.570961
0.300000 0.245866 0.761282
0.300000 0.307333 0.951602
0.300000 0.368799 1.141922
0.300000 0.430266 1.332243
0.300000 0.491733 1.522563
0.300000 0.000000 0.000000
0.300000 0.022431 0.198738
0.300000 0.044861 0.397476
0.300000 0.067292 0.596215
0.300000 0.089722 0.794953
0.300000 0.112153 0.993691
0.300000 0.134583 1.192429
0.300000 0.157014 1.391167
0.300000 0.179444 1.589906
0.300000 -0.000000 0.000000
0.300000 -0.017500 0.199233
0.300000 -0.035000 0.398466
0.300000 -0.052499 0.597699
0.300000 -0.069999 0.796932
0.300000 -0.087499 0.996165
0.300000 -0.104999 1.195398
0.300000 -0.122499 1.394630
0.300000 -0.139998 1.593863
0.300000 -0.000000 0.000000
0.300000 -0.056732 0.191785
0.300000 -0.113465 0.383570
0.300000 -0.170197 0.575355
0.300000 -0.226930 0.767139
0.300000 -0.283662 0.958924
0.300000 -0.340395 1.150709
0.300000 -0.397127 1.342494
0.300000 -0.453859 1.534279
0.300000 -0.000000 0.000000
0.300000 -0.093703 0.176691
0.300000 -0.187407 0.353382
0.300000 -0.281110 0.530073
0.300000 -0.374813 0.706764
0.300000 -0.468517 0.883455
0.300000 -0.562220 1.060146
0.300000 -0.655923 1.236837
0.300000 -0.749627 1.413527
0.300000 -0.000000 0.000000
0.300000 -0.126939 0.154553
0.300000 -0.253877 0.309106
0.300000 -0.380816 0.463659
0.300000 -0.507754 0.618212
0.300000 -0.634693 0.772764
0.300000 -0.761631 0.927317
0.300000 -0.888570 1.081870
0.300000 -1.015509 1.236423
0.300000 -0.000000 0.000000
0.300000 -0.155113 0.126253
0.300000 -0.310226 0.252507
0.300000 -0.465340 0.378760
0.300000 -0.620453 0.505013
0.300000 -0.775566 0.631267
0.300000 -0.930679 0.757520
0.300000 -1.085792 0.883773
0.300000 -1.240905 1.010027
0.300000 -0.000000 0.000000
0.300000 -0.177104 0.092920
0.300000 -0.354208 0.185841
0.300000 -0.531312 0.278761
0.300000 -0.708416 0.371682
0.300000 -0.885520 0.464602
0.300000 -1.062623 0.557523
0.300000 -1.239727 0.650443
0.300000 -1.416831 0.743363
0.300000 -0.000000 0.000000
0.300000 -0.192034 0.055883
0.300000 -0.384068 0.111766
0.300000 -0.576102 0.167649
0.300000 -0.768136 0.223532
0.300000 -0.960170 0.279415
0.300000 -1.152204 0.335299
0.300000 -1.344238 0.391182
0.300000 -1.536272 0.447065
